0.282105 0.197949 -0.499028
0.138877 -0.048965 0.382979
-0.092042 -0.563962 0.251312
0.288578 0.185357 -0.474235
0.194626 0.207607 0.452149
0.187978 -0.116397 -0.784816
0.175529 0.114353 -0.002879
0.482378 -0.046606 0.324142
0.635646 0.094270 0.197915
0.297888 0.249971 -0.587812
-0.368245 -0.129941 0.312200
0.663113 0.397231 -0.252129
0.501285 0.273136 -0.159037
0.516766 -0.013466 0.283454
-0.619364 0.175520 0.116744
0.073401 0.575951 0.227126
-0.277382 -0.105472 0.358767
-0.517362 0.033337 -0.098264
-0.537726 -0.012114 0.073732
0.430151 -0.077354 -0.609644
-0.437136 -0.105831 0.288835
0.153798 0.067424 -0.012387
0.201670 0.208195 0.467823
-0.540610 0.000945 0.065074
0.138656 -0.042148 0.376710
0.124366 -0.459505 0.362046
-0.119557 -0.715253 0.268321
0.052955 0.202463 -0.327495
0.441352 -0.126753 -0.671965
-0.137369 -0.377603 0.303113
-0.435553 -0.094337 0.273553
-0.488104 -0.032132 0.149265
0.005907 0.389166 -0.374259
0.285061 0.218872 -0.515497
-0.414372 0.420069 0.122969
0.190233 -0.127374 0.385015
0.127788 -0.092258 -0.630982
0.157239 -0.048946 0.377326
-0.316556 0.440219 0.267485
0.258612 0.256574 0.520559
0.072917 -0.403658 0.093958
0.270392 0.410378 -0.068710
-0.109577 -0.744447 0.284087
-0.165196 0.265299 -0.314295
0.015325 0.330340 -0.345963
-0.038805 -0.176130 -0.478517
-0.158014 0.095954 0.266961
0.282025 0.483584 0.131460
-0.111409 -0.092563 -0.757887
-0.599629 0.154677 0.141659
-0.208317 -0.102657 0.360170
-0.070321 0.180273 -0.249400
-0.080193 -0.128534 -0.626400
0.134753 -0.006372 -0.027998
0.215331 0.186812 0.018414
-0.082362 -0.702397 0.225414
0.168338 0.101107 0.002255
0.001171 0.371206 -0.358358
-0.090597 -0.626703 0.230719
0.008453 0.440991 -0.461167
0.089948 -0.509016 0.340496
0.209407 0.476523 -0.154165
0.105173 -0.396467 0.132048
-0.650342 0.279113 0.045162
0.141287 -0.062988 -0.015030
0.095765 -0.305283 0.096725
-0.262852 -0.124238 0.365854
0.003431 0.396197 -0.367630
-0.633059 0.231829 0.287228
0.228380 0.233657 -0.587086
-0.382771 0.645905 0.268088
-0.269084 0.319743 -0.424565
-0.110582 -0.829702 0.292150
-0.013554 -0.252617 -0.323306
0.205290 -0.220878 0.417476
-0.114235 -0.672132 0.272169
-0.104798 -0.436407 0.289324
-0.222238 0.326170 -0.373640
0.116022 0.067948 0.376619
0.083271 0.056109 -0.100923
0.122280 -0.106115 0.039678
0.139713 0.005638 -0.009784
0.158015 -0.178923 -0.299251
0.093479 -0.194342 0.065669
0.034118 -0.378655 0.142116
0.264444 0.281237 0.019328
0.120797 -0.068875 -0.663545
0.039971 -0.439905 0.188372
-0.064527 -0.743909 0.248205
-0.130854 -0.812698 0.273229
-0.190432 -0.202107 0.366209
-0.106256 -0.095995 -0.759196
0.300579 0.433071 0.054787
0.559201 0.004103 0.244476
-0.531707 0.323427 0.278979
-0.672361 0.397705 -0.039274
-0.574402 0.131224 0.154408
-0.017338 -0.262447 -0.316500
0.119408 -0.067565 -0.664988
-0.517219 0.074673 0.271767
-0.065932 -0.137197 -0.573251
-0.068492 -0.822994 0.242783
0.063971 0.046417 -0.752405
-0.111297 -0.429399 0.291438
0.110703 0.040204 -0.103826
-0.009795 0.501836 -0.375288
-0.198526 0.321103 -0.139104
0.578342 0.052630 0.196182
0.700465 0.149033 0.175089
0.196329 -0.210450 0.399991
0.168338 0.098211 0.005753
0.010860 -0.307212 -0.263399
-0.341218 0.223871 -0.055428
-0.134059 -0.828855 0.253710
-0.164817 -0.338484 0.322684
-0.329453 0.486696 0.271524
-0.128594 -0.039338 -0.840801
-0.129668 -0.814441 0.279270
-0.008340 0.490613 -0.371478
-0.208153 0.165845 0.280727
-0.131611 -0.051932 -0.809690
-0.055966 -0.632384 0.241687
0.512832 0.015068 0.389795
-0.018191 -0.467197 0.245676
-0.378884 -0.103300 0.306487
-0.482151 -0.049061 0.190091
-0.012835 0.521026 -0.373638
-0.520520 0.243809 0.293050
-0.118790 -0.681283 0.258091
0.102442 0.195577 0.005872
0.152007 -0.079081 0.386268
-0.258390 -0.091127 0.385927
-0.128749 -0.808917 0.277722
-0.543822 0.075299 0.235565
0.690105 0.138256 0.185869
-0.527728 0.074539 0.275912
0.186723 -0.121433 -0.771631
0.095301 -0.361537 0.155830
-0.150639 0.106564 0.248638
0.175865 -0.108098 0.398548
-0.161731 0.087503 0.307833
-0.553878 0.209924 0.292419
0.044402 0.152360 -0.314843
0.519566 0.030796 0.388425
0.065686 -0.391509 0.087655
-0.002256 -0.228357 -0.363527
0.103499 -0.229112 0.063031
-0.003587 0.420824 -0.359393
0.101685 -0.035650 -0.699087
0.077218 0.557671 0.259701
-0.080045 -0.556100 0.238320
-0.276654 0.315633 -0.410954
-0.176406 -0.231017 0.330766
-0.078393 -0.146648 -0.573742
0.314895 -0.170915 0.379915
-0.005632 0.435583 -0.357200
-0.222100 -0.079205 0.343942
-0.129080 -0.808514 0.272460
-0.076840 -0.551175 0.294312
-0.540843 0.007246 0.019247
-0.575097 0.210076 0.299415
-0.588384 0.141454 0.145750
0.499826 0.260532 -0.139504
-0.097174 -0.469371 0.280203
-0.157752 0.071682 0.288828
-0.176661 -0.274508 0.351569
-0.547056 0.023550 -0.007287
0.213424 -0.162478 -0.371290
-0.113130 0.466055 0.004417
0.204885 0.026088 -0.056340
0.294466 0.112715 -0.222375
-0.522765 0.037821 0.268493
-0.210791 -0.055226 0.336196
0.288056 0.238203 -0.539445
0.162637 -0.121802 -0.677651
-0.013204 -0.490316 0.203276
-0.538114 -0.008694 0.075880
0.003583 -0.539312 0.293588
-0.140486 -0.038276 -0.842520
-0.462175 -0.081893 0.259799
0.093979 -0.349962 -0.066341
-0.499955 -0.025956 0.157358
0.034987 -0.385456 0.135292
-0.526663 0.183352 0.294234
0.177093 -0.126034 -0.719606
0.556968 0.078730 0.397843
-0.074457 -0.142795 -0.616918
-0.137721 0.655691 0.244821
0.135112 -0.097152 -0.000929
0.303746 0.099925 -0.225061
-0.392660 0.582850 0.188269
0.169978 0.094346 -0.011408
0.133598 -0.114590 -0.570391
0.236103 0.223523 0.483572
-0.527628 0.017678 0.265752
0.353449 -0.150932 0.378055
-0.293041 0.348259 0.249445
0.033075 0.320591 -0.523755
-0.153047 -0.021698 -0.840553
0.272350 0.339834 0.080719
-0.082653 -0.121090 -0.704004
0.431863 -0.030287 -0.627941
0.019742 -0.463703 0.201113
0.422295 -0.121114 -0.624128
0.174217 -0.109222 0.397772
0.117049 -0.254510 0.082902
-0.189960 0.283813 -0.340317
0.368892 0.554570 -0.174358
0.171136 -0.125831 -0.714579
0.311154 0.140818 -0.099295
-0.466230 -0.056476 0.248586
-0.062589 0.234148 0.318072
0.087695 -0.374803 0.108008
-0.126094 0.471094 -0.006163
0.052717 0.091727 -0.226757
-0.150320 0.106295 0.251560
0.095827 -0.230458 0.098009
0.237577 0.250466 0.033880
-0.535890 0.069853 0.249788
-0.586737 0.155122 0.134111
0.093293 -0.323456 0.105893
-0.140902 0.108067 0.211129
-0.647806 0.295405 0.024443
-0.212199 0.213769 0.023084
0.267644 0.086660 -0.114196
0.283239 0.221006 -0.537957
0.054003 0.296584 -0.466029
-0.181838 -0.022465 0.319356
-0.063617 -0.155561 -0.539231
-0.456141 -0.077388 0.285275
-0.142231 -0.023674 -0.839872
0.261751 0.258122 -0.533282
-0.514457 0.039811 -0.143154
-0.331969 0.377257 0.148065
0.421152 -0.116575 -0.624007
0.109822 -0.126191 0.036638
-0.221681 0.358424 -0.176203
-0.661629 0.387706 -0.044517
0.021207 -0.299920 -0.280161
0.193517 0.130234 0.001086
0.091060 -0.362237 0.007610
0.272831 0.105993 -0.130977
-0.538326 0.022452 -0.033178
0.175555 0.237801 0.483705
0.340215 0.484822 -0.114232
0.005393 -0.409302 0.186783
-0.013104 -0.211067 -0.405999
-0.050263 -0.577016 0.235477
0.064669 -0.328835 -0.233036
-0.105098 0.348044 0.043348
0.147747 0.271550 -0.730438
-0.215180 -0.186202 0.363589
0.124095 0.183173 0.066003
-0.439913 -0.100319 0.299649
-0.098829 -0.587596 0.253215
0.114460 -0.372076 -0.044400
-0.001077 -0.232689 -0.363973
0.111198 -0.048561 -0.681947
0.152231 0.279582 -0.727974
0.151205 0.270957 -0.726400
0.187392 0.108753 0.017652
-0.064653 -0.547763 0.232350
0.153700 -0.361556 0.386970
-0.080860 -0.466811 0.294036
0.099804 -0.334819 -0.204650
0.152162 0.271090 -0.726040
-0.113825 -0.657287 0.271288
0.423986 -0.106736 -0.614675
-0.157671 -0.010921 -0.835960
-0.027944 -0.489863 0.202902
0.154081 0.271081 -0.723783
-0.302178 0.429189 0.266714
0.182594 0.089810 -0.013466
0.101001 0.051177 -0.084072
-0.196864 0.210652 0.041529
0.092581 -0.501912 0.337524
0.443131 -0.129870 -0.653446
0.273662 0.085802 -0.136728
0.108128 -0.371909 0.027739
0.461531 -0.040512 0.331240
-0.408859 -0.097457 0.290550
0.147723 -0.380322 0.359124
-0.537672 0.011484 -0.021345
-0.129642 -0.836810 0.245061
0.196503 0.116361 0.000062
0.092555 -0.355362 -0.068594
-0.372441 -0.116154 0.301968
0.501642 -0.004215 0.386144
0.131148 -0.104200 -0.611570
0.076420 -0.364959 0.108420
-0.080865 -0.146446 -0.556485
0.449779 0.114496 0.261237
0.473384 -0.044362 0.363763
0.159749 -0.406578 0.347016
0.325008 0.151450 -0.101469
-0.508028 0.235305 0.285761
0.208016 0.060859 -0.058069
-0.212977 -0.191251 0.362884
0.310809 0.105631 -0.233339
-0.387826 0.650781 0.256151
0.489972 -0.032463 0.307573
-0.100288 -0.811888 0.224709
0.472925 0.204116 -0.519340
-0.113733 -0.686243 0.276115
-0.129351 -0.059569 -0.794877
-0.110151 0.346587 0.050184
-0.260499 0.277741 0.260320
0.585869 0.040221 0.205402
0.007831 0.405882 -0.372690
-0.047947 0.321332 0.327880
0.427322 0.223487 -0.127145
0.002204 0.428230 -0.448747
0.259417 -0.150722 -0.427089
-0.172918 0.285413 -0.090391
0.001614 0.489772 -0.376972
-0.045334 0.306690 0.326961
0.303706 0.407668 -0.073416
-0.299068 0.224399 -0.017445
0.391061 -0.106346 0.360779
0.131307 0.085969 0.390414
0.218908 0.165228 0.023188
0.177839 -0.302206 0.385415
-0.107720 -0.497195 0.287664
-0.145741 0.247528 -0.041964
-0.047487 0.310933 0.329685
0.294652 0.188100 -0.452573
0.168950 -0.168546 -0.324063
0.356714 -0.146600 0.374833
0.026607 -0.399486 0.145790
0.200677 0.122214 0.007344
-0.172358 0.272538 -0.337553
0.095956 -0.196439 0.057873
0.434554 0.139787 0.261225
-0.171687 0.111920 0.295948
0.138720 -0.137847 0.022962
0.296900 0.119256 -0.215344
-0.291701 0.371728 0.260108
-0.004939 0.105021 -0.185855
-0.005156 0.500183 -0.377434
-0.525130 0.029677 -0.098080
0.369501 0.663204 0.116585
-0.130942 -0.419496 0.320289
0.018113 -0.311850 -0.269317
0.285401 0.367963 0.078023
0.280070 0.222692 -0.542429
0.068733 0.057128 -0.158354
0.086974 -0.366823 0.030061
0.055639 0.117146 -0.265566
-0.079205 -0.143421 -0.588408
0.043116 0.215484 -0.320279
-0.645029 0.271626 0.042607
-0.423130 0.356481 -0.531608
0.311025 0.138020 -0.105648
-0.005551 0.522500 -0.380065
-0.279299 0.345756 0.244518
-0.019691 -0.268638 -0.303804
-0.015312 0.118306 -0.197575
0.147788 -0.169005 -0.316322
0.040061 0.064843 -0.185824
-0.121931 -0.389914 0.331226
0.272014 0.219046 -0.523491
0.145938 -0.085736 0.023422
0.114903 -0.059757 -0.658673
0.085971 -0.484663 0.351897
0.348296 0.151936 -0.105686
0.074172 -0.401515 0.086574
0.186166 0.229605 0.470842
-0.595585 0.219015 0.299208
0.038228 -0.393062 0.130963
-0.568468 0.131781 0.159292
-0.562791 0.102423 0.181099
0.103433 -0.357610 -0.164821
-0.650099 0.284313 0.036199
0.128300 -0.070013 -0.006148
-0.164834 0.093625 0.282161
-0.412981 0.353507 -0.525117
-0.215380 -0.145729 0.345058
0.058899 0.643457 0.145290
0.013375 0.484312 0.453833
-0.093304 -0.485625 0.275967
-0.095626 -0.589441 0.246981
0.293640 0.277689 0.536621
-0.496336 -0.009323 0.261335
-0.072442 -0.501062 0.253653
0.485764 -0.020679 0.359655
0.304465 0.103712 -0.260087
0.143818 -0.007577 -0.037935
0.180161 0.123333 0.000867
0.119111 0.079997 0.385589
-0.139464 0.083112 0.311543
0.038723 0.210536 -0.327456
0.099196 -0.035628 -0.694401
-0.126053 0.222675 -0.272672
0.355950 0.179542 -0.125305
-0.531738 0.051513 -0.171922
0.095946 -0.355612 -0.158863
0.451301 0.084514 0.275705
-0.011747 -0.505320 0.232315
-0.403463 0.353435 -0.521405
-0.388488 0.656799 0.265945
0.135891 -0.106815 -0.558090
-0.058226 -0.493049 0.245652
-0.121707 -0.820196 0.236670
0.164075 -0.363235 0.375812
-0.019188 -0.516093 0.233384
-0.260156 0.307406 0.255534
0.315964 0.160449 -0.356581
0.560647 0.410682 -0.104479
-0.407509 0.346570 -0.513606
0.165228 0.080688 0.001303
-0.093597 -0.813319 0.224654
-0.135978 -0.041493 -0.850683
0.113217 -0.276725 0.100364
-0.133240 0.523874 0.310128
0.106314 -0.039255 -0.676544
0.100544 0.044888 0.367385
-0.000260 -0.253784 -0.340253
0.045571 -0.389204 0.179499
0.418712 -0.105467 -0.609991
0.042040 -0.395238 0.128815
0.668602 0.352733 0.577002
0.221129 0.216170 0.458912
-0.090192 -0.822256 0.286395
0.491694 0.240353 0.433440
0.147764 -0.437705 0.335991
-0.320623 0.359941 -0.552508
0.095937 -0.359337 0.012282
-0.179569 -0.011182 0.341172
0.101399 -0.388326 0.020879
-0.394798 0.346792 -0.515114
0.046052 0.286644 -0.457745
0.058163 -0.322925 -0.216727
-0.056740 0.343103 0.326975
-0.107908 -0.738220 0.283654
0.017937 -0.542612 0.298396
0.077463 0.056325 -0.147067
-0.133587 -0.026822 -0.837039
-0.522894 0.042343 -0.128529
-0.384366 0.406720 0.144509
0.432439 0.140587 0.267814
0.113348 -0.466777 0.360296
-0.584455 0.136342 0.161026
-0.534024 0.199701 0.304735
-0.218792 -0.139145 0.345992
0.022566 0.395993 0.320058
0.249221 0.064805 -0.077587
0.192090 -0.145086 0.402741
-0.328964 0.360317 -0.544841
-0.107032 0.348944 0.044367
-0.114042 -0.081557 -0.774162
0.449439 0.219399 -0.136747
0.146735 -0.105667 0.022593
0.270249 0.336583 0.081605
0.670774 0.124328 0.190081
-0.100526 -0.463756 0.283011
0.671012 0.375488 -0.342777
0.099044 -0.363620 0.123262
0.012034 0.395924 0.374298
-0.126075 -0.041574 -0.859141
-0.131854 -0.048784 -0.814153
0.333068 0.612120 0.136649
0.678741 0.326882 0.569501
0.172293 -0.113008 0.394336
-0.227315 -0.081252 0.354029
-0.104932 -0.806561 0.224271
0.161404 -0.168369 -0.321677
0.082504 -0.339063 -0.188431
-0.317399 0.359327 -0.547551
-0.319085 0.357157 -0.543753
-0.392636 0.669288 0.250183
-0.357160 0.582173 0.263132
-0.030606 -0.549182 0.247614
-0.520896 0.045793 -0.172220
-0.110587 0.227454 0.079119
0.025381 -0.398727 0.147422
-0.237209 0.382236 -0.199582
-0.249760 0.220299 0.003124
0.667385 0.371185 -0.339501
0.143990 -0.185081 -0.298015
0.494565 0.218770 -0.539697
-0.139697 -0.847454 0.264392
0.109883 -0.144743 0.031056
-0.410347 0.599764 0.162814
0.278362 0.345763 -0.039540
0.205120 0.191595 0.023553
0.092339 -0.213768 0.070189
0.141997 -0.125872 -0.525017
0.239189 -0.175594 0.401127
-0.516343 0.140537 0.294774
-0.277456 0.324558 0.258196
-0.252475 0.277129 0.271021
0.114122 0.084840 0.314505
0.512184 0.309464 -0.148279
0.631403 0.358748 -0.263887
0.097268 -0.301525 0.095225
-0.029171 -0.287366 -0.295960
-0.333963 0.352526 -0.520626
-0.119852 -0.047456 -0.814274
-0.016643 -0.453414 0.234929
0.110379 0.030139 0.384134
-0.536283 -0.003243 0.071968
0.079711 -0.324968 0.143678
0.054720 0.114468 -0.260239
0.260079 0.098542 -0.080685
0.119927 -0.378870 0.145974
-0.129851 -0.035869 -0.808728
0.129440 0.181347 0.067181
0.628095 0.358288 -0.278537
-0.332534 0.349742 -0.509403
-0.015690 -0.543179 0.313212
-0.513428 -0.007425 0.089967
0.358069 -0.135109 -0.535968
-0.121995 0.600364 0.284080
-0.550694 0.373254 0.278284
0.032079 0.062690 -0.163471
-0.621117 0.223768 0.292717
0.252126 0.268152 0.024550
0.231066 0.194215 0.024041
-0.149320 -0.016574 -0.842920
0.647790 0.364146 -0.317279
0.184068 -0.110387 0.381484
0.583076 0.322039 -0.207467
0.037739 -0.379646 0.129651
0.583307 0.107441 0.115435
0.135913 0.159418 0.207783
-0.193118 0.211669 0.043010
-0.011052 0.332254 0.330673
-0.651977 0.348763 -0.009337
-0.556519 0.086010 0.208243
0.142540 0.175313 0.112108
-0.542817 0.044714 0.252072
-0.321283 -0.105117 0.335267
0.672793 0.228831 0.435833
-0.106325 -0.085877 -0.769045
0.129050 0.024514 -0.069941
-0.219514 -0.079264 0.360677
0.463691 0.194812 -0.502565
-0.171975 0.271597 -0.320453
-0.356113 -0.115678 0.335129
0.188669 -0.168472 -0.338548
0.077565 0.040047 -0.111720
0.309485 0.123847 -0.228409
0.277784 -0.148439 -0.443796
0.114894 0.074832 0.385761
-0.327678 0.339260 -0.483708
0.260975 0.297000 -0.007372
0.069234 -0.376836 0.169260
-0.534297 -0.012923 0.058350
-0.020312 -0.267836 -0.311531
-0.538953 -0.004887 0.071701
0.270699 0.309930 -0.018340
-0.517450 0.220492 0.289143
-0.393196 0.412437 -0.479464
0.303501 0.174598 -0.244821
0.315088 0.128598 -0.331221
0.276586 0.275888 0.532177
-0.138207 0.109684 0.310745
0.120106 -0.295501 -0.197011
-0.124136 -0.781847 0.268221
-0.181738 0.272971 -0.337605
0.130248 -0.090758 -0.619326
-0.032947 0.138692 -0.213620
0.108871 0.019662 0.376238
0.091777 -0.350626 -0.195625
0.399133 0.213031 0.246442
0.058256 0.128653 -0.278420
-0.106560 -0.097109 -0.733191
-0.080981 -0.700156 0.226164
-0.520162 0.050941 0.261170
-0.068046 0.170657 -0.238156
0.598037 0.046493 0.217544
-0.532157 0.042645 0.247112
-0.664093 0.371783 -0.025165
0.305463 0.182825 -0.247897
-0.342140 0.227309 -0.047436
-0.076447 -0.625796 0.228045
0.057766 0.637154 0.123338
0.275717 0.271786 0.526636
-0.376613 0.238660 -0.073642
0.187226 -0.112873 -0.776279
-0.078874 0.204461 0.329295
0.169838 0.105843 0.002167
-0.590344 0.149422 0.136423
0.652881 0.109536 0.191096
-0.407761 0.596225 0.165116
0.031189 0.330773 -0.538242
-0.312298 0.367713 0.202518
-0.566551 0.101392 0.190860
0.274016 0.123035 -0.103974
0.362431 0.198582 -0.129529
0.201627 0.186228 0.024362
0.010727 -0.537074 0.297239
-0.028042 0.149145 -0.212208
-0.155666 -0.345275 0.311571
-0.075547 0.176337 0.330476
-0.013766 -0.215737 -0.376560
0.229249 0.266049 0.402372
0.005905 0.415614 -0.362246
-0.080141 -0.132403 -0.559788
-0.524489 0.015754 -0.069070
0.003386 0.425051 -0.361206
0.307551 0.166845 -0.241873
-0.216499 0.296186 -0.363587
0.194598 0.188497 0.440377
0.611065 0.343732 -0.236108
-0.112928 -0.663805 0.244568
0.065431 0.063317 -0.164781
-0.660762 0.307568 0.031827
0.099254 -0.037569 -0.691484
-0.213111 -0.080579 0.338253
-0.112778 0.310823 0.063236
-0.098840 -0.648339 0.231014
0.709414 0.441655 -0.265878
-0.022767 -0.270467 -0.297563
0.115553 -0.448223 0.341296
-0.495262 -0.019529 0.255165
0.391235 0.184697 -0.129162
0.138272 -0.085189 -0.639449
-0.083324 -0.525427 0.300272
0.005933 0.387311 -0.382884
-0.208541 0.180530 0.263880
0.302886 0.096313 -0.190541
-0.146365 0.117723 0.220816
-0.539912 0.080240 0.225773
-0.037031 -0.164764 -0.491159
0.300993 0.162297 -0.418112
-0.023641 -0.270105 -0.299215
-0.119188 -0.728386 0.271195
-0.022596 -0.270793 -0.310576
-0.354784 0.574951 0.260254
0.138006 0.008894 -0.011344
-0.171213 0.275369 -0.321987
0.451361 0.200789 -0.508239
-0.068837 -0.715946 0.235594
0.226082 0.233305 0.040509
-0.139457 0.090146 0.316038
0.120901 0.027855 -0.084219
-0.191677 0.285954 -0.342077
0.090114 -0.332410 -0.160390
0.302291 0.262094 -0.611320
0.137127 -0.141388 -0.450421
0.046129 -0.365875 0.122695
0.008100 -0.454290 0.176194
0.225530 0.177853 0.025181
0.021335 0.425141 0.405487
0.291187 0.397276 -0.064819
0.254340 0.101042 -0.108255
-0.521072 0.156389 0.286657
-0.522306 0.113491 0.283301
0.299705 0.262977 -0.609960
0.213050 0.467594 -0.167660
0.022178 -0.311738 -0.268574
-0.654380 0.235834 0.287892
0.010548 0.386563 -0.364694
-0.208072 0.174560 0.266076
-0.513047 -0.010180 0.113575
0.133560 -0.411097 0.359913
-0.170232 0.270731 -0.336291
-0.098769 0.164433 0.327830
-0.004596 0.338446 0.335322
0.059156 0.520035 0.276998
-0.020279 -0.469275 0.191634
0.133915 0.119728 0.247421
-0.100948 -0.822830 0.288909
0.240091 0.428668 -0.095987
0.512841 0.318000 -0.137830
0.130319 -0.109325 -0.563064
-0.175068 -0.311022 0.329242
0.230426 -0.183443 0.387435
0.293895 0.255181 -0.597604
-0.180293 0.273317 -0.329545
0.045976 0.259710 -0.349516
-0.446423 0.433511 0.111396
-0.492983 -0.031390 0.139792
-0.053400 0.261689 0.323782
-0.126265 -0.045689 -0.893716
-0.192454 0.015013 -0.854121
-0.216804 -0.188377 0.360117
0.536049 0.289840 -0.178778
0.134503 -0.004344 -0.010711
0.261517 0.264756 -0.546874
-0.538060 0.370723 0.270186
0.136267 -0.196130 -0.282325
0.499033 0.223223 -0.535916
0.338395 0.616951 0.126255
-0.126291 0.156808 0.123693
-0.010592 0.121654 -0.202145
0.678327 0.360681 0.611758
-0.201643 0.020464 -0.860413
-0.162931 -0.009747 -0.841458
0.196646 -0.167465 0.393057
0.018713 0.085036 -0.165321
0.318360 0.143766 -0.107577
-0.411131 0.418307 0.131444
0.153236 -0.421534 0.369909
0.248678 0.314062 -0.561590
-0.098181 -0.779792 0.291145
-0.370186 -0.105477 0.321189
-0.287869 0.349528 0.262675
0.316467 0.117649 -0.247674
-0.028237 0.144131 -0.194096
0.260967 0.271995 0.003474
-0.128387 0.173010 0.126619
-0.109658 -0.635547 0.272917
0.058411 -0.319041 -0.243747
-0.373641 0.584633 0.190908
0.266032 -0.153130 -0.419412
-0.105372 -0.605660 0.265237
0.307015 0.541724 0.127181
0.311928 0.553461 0.132644
0.074001 -0.520317 0.345609
-0.052466 -0.537028 0.228393
-0.547489 0.011730 0.027191
0.081209 0.057611 -0.104088
-0.131089 -0.826495 0.290216
0.110584 -0.346299 -0.191558
-0.022722 -0.195418 -0.433969
-0.094866 -0.430233 0.299063
-0.402197 -0.116071 0.295820
0.640782 0.363782 -0.300768
-0.120724 -0.073025 -0.780594
-0.224438 -0.146936 0.373836
0.063907 -0.494516 0.343301
0.180789 -0.121674 -0.755715
-0.514540 0.116127 0.290617
0.462205 0.109596 0.265364
0.090841 -0.330119 0.107243
-0.057264 0.173112 -0.237846
-0.068885 -0.146298 -0.566698
-0.101515 0.317943 0.054168
-0.071111 -0.610053 0.230169
0.138449 -0.148908 -0.407780
-0.226345 0.352966 -0.171598
0.106607 0.191184 0.023710
-0.165369 -0.252160 0.345309
-0.312739 0.356381 0.220990
-0.479332 -0.078433 0.256429
0.129374 -0.103598 -0.580950
-0.120019 -0.364213 0.315172
-0.067754 -0.804952 0.235889
-0.128689 0.223890 -0.281044
0.080256 -0.387225 0.048877
0.275169 0.435711 0.122807
-0.027104 -0.281399 -0.323627
-0.654099 0.235508 0.294762
-0.164136 0.053156 0.297944
-0.357658 -0.123910 0.310271
0.278167 0.095211 -0.168760
-0.138971 0.091132 0.316820
-0.522122 0.104000 0.276724
-0.281023 0.312819 -0.416855
-0.110397 -0.755389 0.287016
0.085228 -0.399570 0.108879
0.118199 -0.358953 -0.053644
-0.513940 -0.010878 0.116413
0.375285 -0.136775 -0.549332
-0.046070 -0.557031 0.233286
0.067205 0.057647 -0.160154
0.087695 -0.385318 0.027377
0.091019 -0.334400 -0.152546
0.097277 -0.169651 0.060493
0.188502 0.152350 0.023336
0.353104 0.721687 0.115489
-0.270691 0.308699 -0.419067
0.352309 0.513306 -0.126179
-0.093314 -0.564839 0.258127
0.184668 -0.284416 0.389571
-0.158976 0.019823 0.315577
-0.551240 0.014720 -0.004903
-0.536429 0.050546 -0.192265
-0.111404 -0.080383 -0.776594
0.574248 0.022374 0.221359
-0.498998 -0.033999 0.152575
-0.102241 -0.096264 -0.758287
0.296248 0.106407 -0.241982
0.097865 -0.293189 0.090048
0.189519 -0.295546 0.408566
0.133784 -0.206114 -0.254539
0.288237 0.368475 -0.046760
0.100101 -0.380396 -0.013332
0.078427 -0.484777 0.332528
-0.147172 0.115449 0.208657
0.242456 -0.160307 -0.394450
-0.047770 -0.492309 0.257463
-0.107915 0.353971 0.044722
-0.213108 -0.111489 0.364182
-0.525280 0.045276 -0.139366
0.586283 0.079516 0.154387
0.304034 0.176525 -0.244852
0.190059 -0.151165 0.400882
0.211376 0.466208 -0.133553
-0.049373 -0.622188 0.262692
-0.520365 0.018397 -0.083917
-0.110096 -0.841830 0.229791
0.007781 0.370530 0.350180
0.118625 -0.362361 -0.054342
-0.472747 -0.087479 0.283004
0.253055 0.225878 -0.568682
0.095279 -0.189660 0.056368
-0.111247 -0.741533 0.234536
-0.513726 0.125402 0.293481
-0.021634 -0.271098 -0.317355
0.436476 -0.083453 0.357236
0.174805 0.117213 0.007741
-0.068582 -0.132658 -0.640476
-0.536867 0.023167 -0.031711
-0.249796 0.304127 -0.394862
0.011041 0.378829 0.326409
0.204216 0.487689 -0.229079
-0.069459 -0.811945 0.237899
0.442109 0.128295 0.261704
0.172005 0.027672 -0.056602
0.651098 0.372857 -0.330474
0.141439 -0.107010 -0.598404
0.338329 0.162049 -0.102400
-0.544382 0.016321 -0.020917
0.165595 0.033515 -0.056756
0.227333 0.216682 0.026220
0.229511 0.219501 0.049908
0.515775 0.017740 0.378743
0.616013 0.075358 0.206826
0.331609 0.150665 -0.392340
-0.178200 -0.011625 0.315688
-0.112935 -0.062303 -0.801018
0.080661 -0.371307 0.059421
-0.576555 0.120745 0.167767
0.222896 0.453275 -0.129422
0.420090 0.209531 -0.135068
0.129371 -0.022450 -0.016776
0.117344 0.023662 -0.062760
-0.096138 -0.574464 0.258877
0.168802 0.082878 0.005329
0.155812 -0.069089 -0.003134
0.110922 -0.372593 0.015740
0.186190 -0.255051 0.398217
-0.441451 -0.102300 0.295088
0.322665 0.459695 -0.101638
-0.096635 -0.831795 0.291936
-0.019479 -0.212608 -0.394702
-0.212632 -0.135199 0.348242
0.558816 0.420105 -0.115280
0.302513 0.153879 -0.394436
0.337338 0.147355 -0.387018
0.362503 -0.143340 0.374864
0.578120 0.324051 -0.213844
0.261446 -0.188031 0.390535
-0.181181 0.003231 0.315065
0.054932 -0.352822 0.147369
0.047838 0.127190 -0.273407
-0.556133 0.388087 0.267762
0.137713 0.159463 0.204719
-0.088168 -0.601186 0.235701
-0.212249 -0.205343 0.353938
0.504795 0.209069 0.432033
0.046214 0.308540 -0.518447
0.108821 -0.284078 -0.202968
0.230476 0.231274 0.494111
-0.146901 0.069489 0.289274
0.137265 0.326751 0.556652
-0.595876 0.150507 0.147260
-0.138609 0.093044 0.267245
0.141208 -0.158807 -0.362841
-0.479610 -0.061169 0.275581
-0.081234 -0.138040 -0.594651
-0.152430 -0.284423 0.337565
-0.015979 -0.246640 -0.335769
-0.078248 -0.775167 0.226278
-0.176261 0.032930 0.309635
0.146326 0.061185 -0.024336
0.139206 0.167650 0.184759
-0.112759 -0.073761 -0.785337
0.088367 -0.018864 -0.696389
0.109169 -0.400991 0.137585
0.145547 -0.054195 0.017057
-0.082189 0.402660 0.330271
0.087721 -0.230967 0.083898
0.056444 0.077235 -0.196332
0.292585 0.197320 -0.485482
0.258350 0.288123 -0.553835
-0.066458 -0.521236 0.236670
-0.003239 -0.432123 0.177158
-0.415479 0.595758 0.146271
0.262996 0.251619 -0.541481
0.249314 0.246176 0.021305
-0.607646 0.163804 0.129110
-0.612947 0.228697 0.288462
0.347308 0.656051 0.135718
0.445477 -0.002108 0.318103
0.454751 0.037197 0.295310
0.686942 0.433221 -0.260463
-0.060693 0.166407 -0.214382
-0.087742 -0.122760 -0.708310
-0.120160 -0.851695 0.235270
-0.230174 0.302272 -0.377817
-0.145848 0.232124 -0.021586
-0.076238 -0.134101 -0.660204
0.202906 -0.191601 0.392540
0.194560 0.242480 -0.646479
-0.077586 0.189009 -0.255041
0.155131 -0.357232 0.388001
0.520888 -0.009844 0.278770
-0.504946 -0.034759 0.266219
0.629498 0.159497 0.429378
0.224747 -0.199654 0.406651
-0.065275 -0.519455 0.235546
0.398743 -0.118285 0.368490
0.431408 -0.108148 -0.608846
0.020023 0.301429 -0.346906
0.115017 -0.183185 0.078678
0.022933 -0.553406 0.308761
0.308135 0.224478 -0.278839
-0.122376 -0.806738 0.280165
-0.168156 -0.311226 0.317820
0.496378 -0.041355 0.322244
-0.173418 -0.249262 0.325925
-0.046480 -0.613470 0.253460
-0.655287 0.328061 0.010604
-0.158242 0.074554 0.312079
0.294962 0.288852 0.539443
0.144499 -0.450149 0.346054
0.120375 -0.245404 -0.238320
0.131341 -0.415795 0.346173
0.200801 0.237879 -0.633749
-0.092440 -0.480305 0.314726
-0.328986 0.229886 -0.053039
-0.238309 -0.131861 0.375641
-0.105925 -0.722640 0.230005
-0.216263 0.298984 -0.375638
-0.231267 -0.140533 0.372602
-0.449769 -0.085512 0.266985
0.051112 0.182199 -0.320613
0.408863 0.168760 -0.454483
0.202123 0.236841 -0.629255
-0.213408 0.309447 -0.384727
0.210050 -0.243240 0.406432
0.108228 -0.297068 -0.191648
0.226056 0.282623 0.390749
-0.059957 -0.779208 0.251014
0.147076 -0.128815 -0.495754
-0.507418 0.131058 0.288450
-0.040505 0.273543 0.311407
0.469096 0.199153 -0.503315
0.206361 0.235774 -0.625757
-0.016217 -0.228164 -0.365308
-0.225048 0.308935 -0.370333
0.180377 0.044879 -0.057335
-0.002975 -0.416248 0.187633
0.355102 -0.140883 -0.524505
0.054999 -0.347340 0.130136
-0.067334 -0.734551 0.239892
0.073898 -0.385028 0.068317
-0.209108 -0.209300 0.343213
0.104938 -0.357634 -0.147512
0.229502 0.222068 0.475916
-0.311579 0.430499 0.265683
-0.536757 0.000166 0.035811
0.140930 -0.425070 0.364058
-0.125508 0.175844 0.129927
-0.142888 -0.046213 -0.882184
0.369846 0.662785 0.116599
-0.222131 0.307244 -0.366244
0.154405 0.016218 -0.054440
0.141782 -0.150158 -0.427325
0.042928 -0.506775 0.330200
-0.098112 -0.521858 0.283013
0.103959 -0.264547 0.112932
0.211247 0.239370 -0.613153
0.218472 0.231357 -0.612837
0.216517 0.233324 -0.610486
-0.136133 0.246604 -0.305673
0.509510 0.283365 -0.162954
0.341562 0.485924 -0.117230
-0.087006 -0.735561 0.285573
0.116879 -0.185250 0.078523
0.113048 -0.349509 -0.078626
0.165697 -0.168743 -0.325675
-0.072714 -0.546029 0.295939
0.089998 -0.336608 0.109839
-0.107141 0.284585 0.072889
-0.610166 0.171869 0.114349
-0.314346 0.427382 0.270243
-0.077588 -0.138785 -0.631034
-0.008778 -0.243135 -0.359446
-0.521922 0.109474 0.278839
0.110181 -0.167872 0.070689
-0.076207 -0.502336 0.255965
-0.450378 -0.088722 0.291817
-0.242933 0.394645 -0.211112
-0.148077 0.092877 0.250324
-0.126063 -0.043239 -0.880825
0.104409 -0.354622 -0.012301
0.099354 -0.389197 0.047870
-0.308686 0.412776 0.266180
-0.168227 0.079528 0.296567
-0.361206 0.229083 -0.065007
0.087750 -0.019241 -0.712231
0.224170 -0.179452 0.389780
0.432054 -0.085558 0.352340
0.137037 0.327899 0.559319
-0.487304 -0.067718 0.269926
0.579232 0.055101 0.187390
-0.136545 -0.042200 -0.812914
0.382836 0.167686 -0.426099
-0.537026 0.005179 0.062517
0.290468 0.174813 -0.424660
-0.315887 0.321994 -0.452430
-0.610763 0.219877 0.292517
0.056161 0.070574 -0.184219
-0.336903 0.374812 0.166448
-0.075785 -0.141147 -0.622431
0.593220 0.043240 0.217094
-0.089358 -0.126936 -0.686783
0.027557 -0.522005 0.332507
0.311833 0.111243 -0.220551
0.058394 -0.331152 -0.227645
0.049198 0.263285 -0.391428
0.140863 -0.108875 -0.591113
-0.544613 0.004748 0.031618
0.134031 0.160961 0.207967
0.051191 -0.314036 -0.225516
0.671410 0.197591 0.435657
0.592701 0.122819 0.405799
-0.129375 -0.803023 0.249962
0.408856 -0.086355 0.361848
0.162668 -0.116285 -0.705185
-0.541651 0.083200 0.210572
-0.049787 -0.518421 0.220844
0.043709 0.214798 -0.319722
0.153357 -0.070070 0.392812
-0.251336 0.307061 -0.407899
-0.007761 -0.227281 -0.380953
0.198010 -0.249686 0.415286
-0.069189 -0.141566 -0.617713
0.039816 0.312243 -0.492940
0.163559 0.267268 -0.691651
-0.585127 0.152105 0.136556
-0.521255 0.043702 -0.135561
0.156701 0.018090 -0.055478
0.118382 -0.259525 -0.227719
0.229969 0.452320 -0.130022
-0.161619 -0.015069 -0.844001
-0.257761 -0.104841 0.376417
-0.364895 -0.130260 0.313364
-0.178235 -0.301554 0.331445
-0.100164 -0.110565 -0.749128
0.086957 -0.344323 -0.169808
0.152786 -0.065341 0.014097
0.146885 -0.150763 -0.323358
0.177146 0.260903 -0.702245
0.221999 -0.196856 0.393269
-0.373029 -0.105124 0.320579
-0.611811 0.170917 0.129762
0.450665 0.107017 0.263282
0.166240 0.020176 -0.010808
0.310540 0.556270 0.005108
0.593724 0.061776 0.188517
-0.127370 -0.061319 -0.800058
-0.176940 -0.263209 0.323799
-0.008733 -0.563127 0.315112
0.111593 -0.487382 0.349071
-0.132187 -0.046494 -0.818298
-0.244240 0.257948 0.270943
-0.176452 0.128445 0.277132
0.491729 -0.003527 0.373731
-0.345914 0.232703 -0.041417
-0.066577 -0.494166 0.264678
-0.133249 0.536613 0.307942
-0.651613 0.236743 0.286171
0.238596 0.339665 -0.570053
0.028977 -0.380079 0.151889
0.050455 -0.358965 0.147762
-0.214375 -0.191782 0.360886
0.069612 -0.391202 0.078852
-0.052754 -0.644779 0.254067
0.661851 0.283542 0.427132
0.079499 -0.299477 0.096794
-0.134778 -0.423165 0.309114
-0.084496 -0.499800 0.268807
-0.471043 -0.054690 0.214186
0.579909 0.136425 0.075209
0.179387 0.252674 -0.680544
-0.054983 -0.614951 0.236748
0.104359 -0.335070 -0.147400
-0.173480 0.273391 -0.069951
0.018647 0.086455 -0.164914
0.214198 -0.174920 0.392228
0.174660 0.044360 -0.054166
0.149833 -0.081081 0.017281
-0.138545 -0.846509 0.256656
-0.386249 0.644426 0.263487
-0.370819 0.571210 0.227836
0.119215 -0.070587 -0.653830
-0.040393 0.256660 0.314419
0.106252 -0.203497 0.087736
0.000430 -0.482939 0.230019
-0.162412 -0.344875 0.335384
-0.411157 0.418976 0.130872
0.055272 0.509884 0.286459
-0.297958 0.386451 0.271686
0.221079 0.460200 -0.155239
-0.001906 -0.540172 0.319784
-0.548625 0.203604 0.293629
-0.115523 -0.788531 0.280644
0.019216 0.319312 -0.356415
0.266513 0.247997 -0.551130
0.193388 0.034468 -0.065336
-0.525365 -0.011933 0.095611
-0.416429 0.423689 0.117702
0.144228 -0.396815 0.375583
-0.525706 0.035199 -0.140990
-0.518638 0.111327 0.286273
-0.110756 -0.683052 0.237525
-0.296468 0.383215 0.263271
0.126031 -0.222900 -0.243083
0.248359 0.302375 -0.557573
0.229535 0.049710 -0.081969
-0.030052 -0.487165 0.257760
-0.183986 -0.247229 0.358767
0.146628 -0.115921 0.023593
0.308651 0.559969 0.002072
0.248237 -0.171234 0.393226
0.357878 -0.140738 -0.518474
0.167380 0.001014 -0.040138
0.594894 0.108772 0.408590
-0.088356 -0.122302 -0.710250
0.143961 -0.143586 -0.457538
-0.512383 0.212143 0.290898
0.125190 0.095430 0.278546
-0.484563 -0.051949 0.203819
0.631838 0.146433 0.426384
-0.232568 0.309440 -0.396455
0.418064 0.197677 -0.130151
0.253652 0.293007 -0.550865
-0.012602 -0.223688 -0.387325
-0.134399 0.157658 0.151303
0.117356 0.047877 -0.074478
-0.089458 -0.541460 0.270136
0.115696 -0.268910 -0.221613
0.476659 0.207450 -0.527215
-0.524989 -0.008885 0.095618
0.132774 -0.098545 -0.637337
-0.154075 -0.367890 0.319225
-0.167193 -0.318158 0.341572
-0.291272 0.222039 -0.012997
0.120394 -0.157709 0.064807
-0.077957 -0.136242 -0.647843
-0.524110 0.028324 -0.105850
0.498768 0.230705 0.432071
0.352985 -0.141007 -0.521781
0.046369 0.067722 -0.188238
-0.040412 -0.548756 0.236598
0.229671 0.442712 -0.114435
0.095658 -0.371574 -0.044512
-0.668475 0.375107 -0.018104
-0.517634 0.256234 0.290826
-0.667210 0.319346 0.005315
-0.607503 0.165304 0.134613
0.030917 -0.539400 0.305683
0.130281 -0.114537 -0.551739
-0.340139 0.228852 -0.043536
-0.236008 -0.137740 0.370304
0.088712 -0.349364 -0.136375
0.282248 0.261499 -0.581190
0.022823 -0.519967 0.314755
-0.130082 0.198189 0.090548
0.316238 0.118811 -0.271629
0.010953 -0.290836 -0.273007
-0.079453 -0.133904 -0.579352
0.120387 0.022081 -0.062645
-0.249362 0.217067 0.012359
0.143702 0.020609 -0.057052
0.151822 0.065895 -0.021936
-0.521282 0.074206 0.276179
0.216357 0.242713 -0.611313
0.136906 -0.144957 -0.438226
0.635674 0.166940 0.422339
0.067919 -0.361761 0.160273
-0.636526 0.209255 0.085779
-0.273941 0.309795 -0.411145
0.127350 -0.090892 -0.631201
-0.003803 -0.295729 -0.274724
-0.045001 0.303499 0.330731
-0.156778 -0.297253 0.316858
0.138594 0.165616 0.187579
0.184106 -0.114642 -0.769557
-0.253846 0.308545 -0.414650
-0.432731 -0.097419 0.276270
0.175700 0.547405 -0.143947
0.055592 -0.384668 0.112122
0.299446 0.116632 -0.282820
0.200189 0.161552 0.035285
0.258072 0.257067 0.518535
0.105933 -0.297675 -0.193956
0.161994 0.272359 -0.715727
-0.493457 -0.028877 0.174982
-0.350093 0.231933 -0.048637
-0.384142 0.406113 0.144674
0.129102 -0.017136 -0.012070
0.319919 0.136851 -0.112758
-0.568101 0.108886 0.182645
0.109233 -0.287164 -0.210979
0.276674 0.221501 -0.544531
0.277455 0.375174 -0.040502
0.191038 -0.123824 -0.778939
0.135334 -0.107284 -0.606998
0.147471 -0.211817 -0.263811
-0.057350 0.334807 0.335576
-0.088218 -0.112708 -0.721097
-0.515698 0.120899 0.291036
0.098551 -0.169970 0.052437
-0.159943 0.074368 0.288657
-0.336687 -0.113108 0.317279
0.046602 0.170741 -0.301849
0.105835 -0.372274 0.043083
0.388956 -0.127327 -0.572744
-0.056269 -0.149229 -0.540355
0.067024 -0.305492 0.116644
0.269826 0.314910 0.072894
0.230347 0.356226 -0.565984
-0.167177 -0.334212 0.328368
0.262163 0.298748 -0.003920
0.642878 0.170300 0.427311
-0.060669 -0.669596 0.244587
-0.032595 0.146362 -0.217875
-0.526854 0.178806 0.295893
0.290306 0.091215 -0.141995
-0.288372 0.369528 0.259999
-0.164667 0.045455 0.325830
-0.139476 0.094853 0.247928
0.366953 0.541602 -0.161930
0.028112 -0.314300 -0.245664
0.152041 -0.025256 0.002884
0.283915 0.268438 0.525520
0.239601 0.336162 -0.557142
-0.109806 -0.714646 0.233324
-0.526135 0.176822 0.301387
-0.129211 0.155610 0.126703
0.698194 0.432783 -0.257870
0.183170 0.262892 -0.670400
-0.373234 0.572229 0.222868
-0.519224 0.000650 0.253115
0.423400 -0.124881 -0.619435
0.091284 -0.505956 0.339698
-0.173589 -0.293427 0.321484
0.563123 0.112008 0.409873
0.209440 -0.215439 0.393076
-0.098557 -0.118035 -0.707074
0.442021 0.233169 -0.139461
-0.670534 0.383291 -0.023667
0.131624 -0.107324 -0.588289
-0.026880 -0.290622 -0.297146
0.412273 0.207981 -0.118568
0.214703 0.035578 -0.066541
-0.003689 -0.253113 -0.346502
-0.146482 0.120030 0.206050
0.064664 -0.337670 0.114804
-0.095738 -0.110532 -0.737372
0.100575 -0.219709 0.095261
0.084197 -0.250074 0.087848
0.102740 -0.166341 0.064724
0.193250 0.024319 -0.061855
0.428708 -0.048294 -0.622026
0.153717 0.281353 -0.721347
0.559023 0.075916 0.409668
-0.182412 -0.049327 0.339705
0.156465 0.023555 -0.012209
0.152729 0.287292 -0.728845
0.242563 0.228490 -0.569748
0.154477 -0.150677 -0.377319
0.080652 0.043760 -0.135080
0.656286 0.193091 0.431945
-0.526861 0.186840 0.303299
-0.663345 0.342689 -0.007744
0.663142 0.278734 0.427627
-0.065763 -0.786354 0.272486
-0.195032 0.153820 0.287461
-0.130675 0.211060 0.022517
-0.524122 0.167950 0.298910
0.534927 0.163747 0.427180
-0.613068 0.178499 0.110044
-0.652608 0.283020 0.042057
0.064919 -0.324854 0.137294
-0.088858 -0.551732 0.248109
0.239384 0.344768 -0.559766
0.417514 -0.085203 0.367821
-0.083439 -0.553664 0.285654
0.465796 0.202782 -0.517071
-0.669263 0.322449 0.005601
-0.116564 -0.460434 0.312936
-0.216663 -0.155332 0.374619
0.292373 0.264944 -0.600940
0.294483 0.266421 -0.605798
0.044238 0.070570 -0.192258
-0.057326 -0.150060 -0.542064
0.207649 -0.183133 0.390904
-0.132285 -0.841649 0.247702
-0.209310 -0.069063 0.334962
-0.067780 -0.617290 0.230422
0.204106 0.490368 -0.126226
0.142682 -0.025741 -0.029849
-0.495281 -0.021881 0.120111
0.106978 0.051639 -0.083848
-0.317737 0.231707 -0.041838
0.179972 -0.125931 0.396788
-0.038488 -0.177925 -0.458721
0.355121 -0.142517 0.368075
0.300219 0.275057 -0.626564
0.354247 0.144997 -0.382906
0.620187 0.564993 -0.105919
0.026493 0.286280 -0.342301
-0.085698 0.419681 0.337579
0.125095 -0.076445 -0.654237
0.069250 0.578892 0.267902
-0.211127 0.023957 -0.866651
-0.125901 -0.018790 -0.832064
-0.240990 0.267147 0.260208
-0.501467 -0.032535 0.132384
0.102821 -0.465963 0.353645
0.089076 0.037404 -0.091153
-0.138188 -0.027839 -0.840303
-0.281518 0.337303 0.266180
-0.207181 0.027265 -0.864546
0.625242 0.086005 0.201871
0.121254 -0.056397 -0.670684
-0.387695 0.665833 0.243142
0.202134 -0.152377 0.391888
0.103864 -0.376005 0.035668
0.336621 0.331604 0.557495
0.361422 -0.145022 0.376957
-0.033307 -0.543010 0.243547
0.046307 -0.317663 -0.228048
-0.261804 0.316862 0.254753
0.166697 0.085079 -0.014521
0.091584 -0.353729 -0.164583
0.085735 -0.347157 -0.179016
0.001650 -0.429861 0.217484
0.091291 -0.335941 -0.146102
0.446262 0.049586 0.298944
0.226825 0.244656 0.435050
0.150048 -0.074292 0.383160
-0.056902 -0.523124 0.226585
0.169062 0.262492 -0.703097
0.164192 -0.067141 0.378589
0.065862 0.055637 -0.159921
0.244777 0.234010 -0.581333
-0.232494 0.220942 0.272050
0.594539 0.092022 0.139976
0.297681 0.165438 -0.426727
0.133358 -0.035476 0.006039
0.296195 0.130408 -0.103124
0.184061 0.260006 -0.695558
-0.202383 0.216794 0.035976
-0.033759 -0.285495 -0.312348
-0.533871 0.024150 0.256977
-0.131244 0.173977 0.107262
-0.113680 -0.706017 0.237549
-0.519017 0.030991 -0.085162
0.111703 -0.313488 -0.186014
-0.600664 0.172772 0.136073
0.301436 0.126831 -0.284833
0.313873 0.223235 -0.288612
-0.594369 0.155110 0.131834
0.069576 -0.492118 0.346587
0.091398 -0.025032 -0.692241
0.602468 0.118725 0.409102
-0.121064 -0.062876 -0.803737
0.210319 0.483717 -0.124993
0.673657 0.358531 0.572604
-0.254477 0.222308 -0.000217
0.028784 -0.377567 0.157392
0.467341 -0.034171 0.332888
-0.669456 0.324473 0.005720
0.270097 0.230424 -0.556518
-0.495655 -0.018755 0.121781
0.136634 0.323918 0.550911
0.493711 -0.016859 0.380705
0.249590 0.265435 0.027898
-0.265457 0.323882 0.254270
-0.589692 0.144247 0.142459
0.130014 -0.092847 -0.617961
0.280958 0.486448 0.131339
0.119942 -0.374374 0.150477
-0.312672 0.355247 0.215206
-0.611523 0.167074 0.127072
-0.144446 -0.024829 -0.839039
-0.107380 0.391940 0.030308
-0.531037 0.325882 0.281442
-0.237690 0.403501 -0.226871
-0.091797 -0.107553 -0.726862
-0.392029 0.229988 -0.087458
0.305861 0.109819 -0.282339
0.479030 0.217217 -0.536957
-0.063729 -0.800425 0.246338
-0.099705 -0.433305 0.292960
-0.520591 0.134203 0.290393
0.643935 0.365701 -0.310116
0.008562 0.393178 -0.397322
-0.163881 0.047027 0.325106
0.003626 0.398641 -0.397874
0.178663 0.014756 -0.027260
-0.528492 -0.007982 0.089713
0.118346 -0.248191 0.082981
0.081023 -0.512549 0.350535
0.163892 -0.016605 -0.018445
0.456185 0.189995 -0.496712
-0.337296 0.234581 -0.039990
0.003193 0.396893 -0.394309
0.066317 0.518219 0.276529
0.113531 0.383072 0.591565
0.544207 0.385380 -0.113142
-0.107277 0.446677 0.015014
-0.413148 0.597954 0.157863
0.006853 0.385877 -0.383656
0.579039 0.021397 0.225107
-0.367335 0.394345 0.153568
-0.540836 0.002621 0.049777
0.059821 -0.312993 -0.226583
-0.072504 -0.144005 -0.609282
-0.426352 -0.106181 0.303127
0.179913 -0.115147 -0.747485
0.400298 0.217715 0.240070
-0.156202 -0.336913 0.346406
0.521931 0.284601 -0.169981
0.122175 -0.137961 0.018445
0.076261 0.560026 0.249309
0.056544 0.076147 -0.188881
-0.101072 -0.755846 0.227255
0.579492 0.046643 0.188955
0.156429 -0.049327 0.375883
0.066086 -0.526803 0.343908
-0.279663 0.328594 0.263999
0.252905 0.406844 -0.087224
0.285484 0.106336 -0.156794
-0.140176 -0.038552 -0.845828
0.097239 -0.391793 0.044641
-0.033654 0.145995 -0.218146
0.444896 -0.074809 0.355145
-0.511850 0.014363 0.265688
0.095175 0.034039 -0.105641
0.004612 -0.291362 -0.270879
0.143390 -0.104998 -0.587677
-0.225972 0.551441 0.262275
0.108781 -0.181769 0.039212
0.315833 0.116125 -0.254677
-0.175304 0.041602 0.309623
0.107278 -0.355055 -0.174258
0.006981 0.386720 -0.375745
-0.060200 -0.760178 0.258341
0.517459 -0.018819 0.286259
0.220598 0.229562 -0.605010
-0.325804 0.459683 0.269709
0.050817 0.660587 0.098433
-0.171715 -0.319715 0.333124
-0.560477 0.103557 0.199592
0.430344 -0.058414 -0.623062
-0.579381 0.127290 0.168367
0.484919 0.218777 -0.540676
0.004555 0.366594 -0.361191
-0.549432 0.071277 0.220149
0.153646 0.045060 -0.011244
0.651167 0.383210 -0.246783
-0.635430 0.229138 0.290495
0.032522 0.073475 -0.158201
-0.007340 -0.448216 0.232296
0.003271 0.365289 -0.355898
0.577399 0.317484 -0.206862
0.114824 -0.348709 -0.115447
-0.292779 0.222959 -0.026560
0.310259 0.156427 -0.368075
-0.087618 -0.111761 -0.719818
0.415911 0.179115 0.256432
0.153450 -0.074316 -0.001729
0.138984 -0.142066 -0.414659
-0.068697 -0.143814 -0.579164
0.402341 -0.127901 -0.585546
-0.234620 -0.129989 0.348990
-0.315813 0.225223 -0.045524
0.472432 -0.050487 0.352914
0.143021 -0.106084 -0.595030
0.289285 0.240318 -0.550903
-0.538184 -0.000717 0.047174
0.080061 -0.003282 -0.725864
0.245442 0.425444 -0.106841
0.010141 0.092570 -0.183340
-0.044520 0.280584 0.317817
-0.291112 0.364715 0.260501
-0.161374 0.082385 0.307833
0.294662 0.522090 0.127741
0.435194 0.192555 -0.490789
-0.548901 0.061840 0.255924
0.133222 -0.112782 -0.572844
-0.062665 -0.624331 0.232808
0.226271 0.046246 -0.078678
0.118537 -0.465620 0.360675
0.137089 -0.392045 0.360796
-0.080922 0.183140 -0.232248
0.039849 -0.368354 0.133282
0.113639 -0.103867 0.020821
-0.122510 -0.053535 -0.813862
0.145423 -0.168365 -0.313319
-0.577843 0.132960 0.170715
-0.126320 -0.344330 0.317951
0.052110 -0.326464 -0.240080
0.118801 0.024764 -0.054673
-0.446528 0.431594 0.108031
-0.516688 0.132353 0.279318
0.071248 -0.364301 0.109315
-0.178790 0.291750 -0.102631
0.061064 -0.401075 0.108027
0.570638 0.109293 0.404887
0.189262 0.224637 0.465591
-0.474155 -0.077571 0.254470
0.379312 0.559230 -0.173077
0.103623 -0.313791 -0.183931
0.010284 0.383613 -0.375252
0.591660 0.124724 0.406118
0.349828 0.502055 -0.142504
0.011072 0.379736 -0.372895
0.073551 -0.523031 0.337150
0.668221 0.293283 0.432592
-0.054795 -0.602512 0.235503
0.224151 0.236096 0.427037
-0.136564 0.150543 0.161666
0.175084 -0.117554 0.385389
0.079632 -0.303728 0.133320
0.632755 0.365332 -0.293053
0.154469 0.033806 -0.057302
0.077982 -0.380577 0.053782
0.304656 0.129715 -0.307073
0.281417 -0.166162 0.390616
-0.001377 0.393845 -0.361329
0.079275 -0.299973 0.131146
-0.213511 -0.056431 0.339989
-0.034524 -0.492583 0.206288
-0.664924 0.243275 0.296334
-0.001091 0.393928 -0.360277
0.682194 0.430408 -0.258396
0.567926 0.007841 0.237477
0.104107 -0.476914 0.356977
-0.038260 -0.474674 0.243306
-0.056405 -0.665779 0.253903
-0.114595 -0.711198 0.238939
-0.000770 0.399500 -0.358967
-0.484332 -0.048289 0.188733
-0.381708 0.578764 0.211174
-0.391419 0.666888 0.264768
0.317321 -0.144776 -0.482146
0.166142 -0.166743 -0.333317
-0.231067 0.200787 0.269181
0.012110 0.342370 -0.354541
0.419633 -0.117399 -0.620009
0.460481 0.105924 0.267088
0.121082 -0.102598 0.037097
-0.138576 -0.377017 0.332109
0.273459 0.338881 -0.029627
-0.149494 0.534666 0.301484
-0.171637 0.269985 -0.071603
0.050741 -0.503260 0.336753
0.200963 -0.269202 0.397543
0.226130 0.225807 0.489256
-0.319213 0.361622 0.199075
0.016654 0.082869 -0.170062
0.306087 0.158411 -0.238122
-0.219950 0.210964 0.030082
-0.110323 -0.623972 0.254898
-0.035786 -0.170234 -0.456638
0.188150 0.018723 -0.045998
0.339545 -0.159168 0.380908
-0.168136 0.064193 0.300149
-0.516926 -0.006615 0.254696
0.000278 -0.483320 0.211260
-0.535202 0.026922 0.262175
-0.421875 -0.110141 0.302458
0.194157 0.217663 0.475157
-0.323735 0.232441 -0.034073
0.043181 -0.543989 0.331907
0.125404 -0.145019 0.020602
0.136808 -0.052173 -0.017790
-0.534250 0.052768 0.269297
0.575956 0.321767 -0.212729
-0.186789 -0.058881 0.343120
0.147714 -0.111230 -0.665250
0.152412 -0.345528 0.382675
0.706564 0.438636 -0.265087
0.227211 0.451749 -0.130277
0.203737 -0.182621 0.391923
-0.483525 -0.035138 0.195687
0.008086 0.367637 -0.365316
-0.135123 0.524236 0.308323
0.223425 0.205761 0.023622
-0.160736 -0.263033 0.344287
0.294819 0.109124 -0.227124
0.140430 -0.156799 -0.354793
0.226994 0.283282 0.397014
-0.008106 -0.431011 0.212960
-0.090375 -0.548270 0.266619
0.459050 0.237617 -0.140490
0.100616 -0.180778 0.072561
-0.519853 0.066772 0.261975
-0.086741 -0.128979 -0.676634
-0.379827 0.619509 0.259723
0.362243 0.539966 -0.160628
0.148221 -0.154077 -0.397124
0.170345 0.003291 -0.033578
0.166311 0.553487 -0.139980
-0.004739 0.341544 0.330790
-0.132963 -0.330779 0.323839
0.446901 0.040571 0.297489
-0.069718 -0.726026 0.235420
-0.064139 0.199265 0.326656
0.628933 0.360400 -0.250536
0.131410 -0.179547 0.045777
0.277107 0.209919 -0.515683
0.449365 0.044633 0.292983
0.320246 0.130060 -0.328666
-0.541755 0.010920 -0.005072
0.100168 -0.314577 -0.200018
-0.111673 0.320617 0.057768
0.218420 0.247485 0.429611
0.286008 0.335426 -0.028434
0.097280 -0.369854 -0.059621
-0.143800 0.193405 0.079850
0.350604 0.506355 -0.125414
0.294800 -0.139366 -0.461219
0.284877 -0.150198 -0.436405
0.087845 -0.508120 0.336760
-0.150146 -0.320782 0.311152
0.427708 0.208383 -0.135680
0.168431 0.092075 0.006386
0.355576 0.715589 0.112563
0.028353 0.085812 -0.186936
-0.002994 -0.419722 0.182659
0.130645 0.038673 -0.076256
0.289385 -0.170444 0.375910
-0.170030 -0.293446 0.319191
